115.000000	1935.000000	0.243787
105.000000	1945.000000	0.263443
95.000000	1955.000000	0.283883
85.000000	1965.000000	0.305084
75.000000	1975.000000	0.327315
65.000000	1985.000000	0.349646
55.000000	1995.000000	0.370922
45.000000	2005.000000	0.389772
35.000000	2015.000000	0.406474
25.000000	2025.000000	0.421044
15.000000	2035.000000	0.434376
5.000000	2045.000000	0.447566
195.000000	1865.000000	0.126285
185.000000	1875.000000	0.138203
175.000000	1885.000000	0.152240
165.000000	1895.000000	0.167986
155.000000	1905.000000	0.184517
145.000000	1915.000000	0.201806
135.000000	1925.000000	0.219526
125.000000	1935.000000	0.236939
115.000000	1945.000000	0.254867
105.000000	1955.000000	0.273805
95.000000	1965.000000	0.294038
85.000000	1975.000000	0.315496
75.000000	1985.000000	0.337095
65.000000	1995.000000	0.359827
55.000000	2005.000000	0.381269
45.000000	2015.000000	0.399982
35.000000	2025.000000	0.416210
25.000000	2035.000000	0.431283
15.000000	2045.000000	0.445060
5.000000	2055.000000	0.457930
195.000000	1875.000000	0.140024
185.000000	1885.000000	0.151412
175.000000	1895.000000	0.164689
165.000000	1905.000000	0.180980
155.000000	1915.000000	0.196973
145.000000	1925.000000	0.214129
135.000000	1935.000000	0.230887
125.000000	1945.000000	0.247949
115.000000	1955.000000	0.265465
105.000000	1965.000000	0.284448
95.000000	1975.000000	0.304631
85.000000	1985.000000	0.325568
75.000000	1995.000000	0.347973
65.000000	2005.000000	0.369915
55.000000	2015.000000	0.391384
45.000000	2025.000000	0.409850
35.000000	2035.000000	0.426379
25.000000	2045.000000	0.441760
15.000000	2055.000000	0.454961
5.000000	2065.000000	0.467887
195.000000	1885.000000	0.154062
185.000000	1895.000000	0.165203
175.000000	1905.000000	0.178091
165.000000	1915.000000	0.193437
155.000000	1925.000000	0.209157
145.000000	1935.000000	0.226119
135.000000	1945.000000	0.242614
125.000000	1955.000000	0.259422
115.000000	1965.000000	0.276728
105.000000	1975.000000	0.295418
95.000000	1985.000000	0.314686
85.000000	1995.000000	0.335618
75.000000	2005.000000	0.357484
65.000000	2015.000000	0.379613
55.000000	2025.000000	0.400909
45.000000	2035.000000	0.419792
35.000000	2045.000000	0.436893
25.000000	2055.000000	0.451760
15.000000	2065.000000	0.465062
5.000000	2075.000000	0.477273
195.000000	1895.000000	0.167900
185.000000	1905.000000	0.178501
175.000000	1915.000000	0.191448
165.000000	1925.000000	0.205971
155.000000	1935.000000	0.221475
145.000000	1945.000000	0.237740
135.000000	1955.000000	0.254525
125.000000	1965.000000	0.270954
115.000000	1975.000000	0.287857
105.000000	1985.000000	0.305747
95.000000	1995.000000	0.325049
85.000000	2005.000000	0.345648
75.000000	2015.000000	0.367447
65.000000	2025.000000	0.389693
55.000000	2035.000000	0.410893
45.000000	2045.000000	0.429784
35.000000	2055.000000	0.447195
25.000000	2065.000000	0.462102
15.000000	2075.000000	0.475158
5.000000	2085.000000	0.487319
195.000000	1905.000000	0.181717
185.000000	1915.000000	0.192113
175.000000	1925.000000	0.204092
165.000000	1935.000000	0.218475
155.000000	1945.000000	0.233424
145.000000	1955.000000	0.250238
135.000000	1965.000000	0.266030
125.000000	1975.000000	0.282542
115.000000	1985.000000	0.299214
105.000000	1995.000000	0.317102
95.000000	2005.000000	0.335927
85.000000	2015.000000	0.356153
75.000000	2025.000000	0.377749
65.000000	2035.000000	0.399602
55.000000	2045.000000	0.420340
45.000000	2055.000000	0.439812
35.000000	2065.000000	0.457424
25.000000	2075.000000	0.471667
15.000000	2085.000000	0.485054
5.000000	2095.000000	0.496555
195.000000	1915.000000	0.195567
185.000000	1925.000000	0.205492
175.000000	1935.000000	0.217372
165.000000	1945.000000	0.230895
155.000000	1955.000000	0.245607
145.000000	1965.000000	0.262134
135.000000	1975.000000	0.277793
125.000000	1985.000000	0.294111
115.000000	1995.000000	0.310367
105.000000	2005.000000	0.327841
95.000000	2015.000000	0.346133
85.000000	2025.000000	0.366376
75.000000	2035.000000	0.387455
65.000000	2045.000000	0.409125
55.000000	2055.000000	0.430384
45.000000	2065.000000	0.450157
35.000000	2075.000000	0.467347
25.000000	2085.000000	0.481977
15.000000	2095.000000	0.494595
5.000000	2105.000000	0.506282
195.000000	1925.000000	0.208939
185.000000	1935.000000	0.218528
175.000000	1945.000000	0.229568
165.000000	1955.000000	0.243100
155.000000	1965.000000	0.257772
145.000000	1975.000000	0.273923
135.000000	1985.000000	0.289819
125.000000	1995.000000	0.305561
115.000000	2005.000000	0.321716
105.000000	2015.000000	0.338679
95.000000	2025.000000	0.356752
85.000000	2035.000000	0.376737
75.000000	2045.000000	0.397217
65.000000	2055.000000	0.418563
55.000000	2065.000000	0.440330
45.000000	2075.000000	0.460223
35.000000	2085.000000	0.477160
25.000000	2095.000000	0.491781
15.000000	2105.000000	0.504125
5.000000	2115.000000	0.515184
195.000000	1935.000000	0.222316
185.000000	1945.000000	0.231702
175.000000	1955.000000	0.242105
165.000000	1965.000000	0.255017
155.000000	1975.000000	0.269469
145.000000	1985.000000	0.285703
135.000000	1995.000000	0.301280
125.000000	2005.000000	0.317589
115.000000	2015.000000	0.333386
105.000000	2025.000000	0.349954
95.000000	2035.000000	0.367487
85.000000	2045.000000	0.386803
75.000000	2055.000000	0.407607
65.000000	2065.000000	0.428701
55.000000	2075.000000	0.450306
45.000000	2085.000000	0.470363
35.000000	2095.000000	0.487219
25.000000	2105.000000	0.501238
15.000000	2115.000000	0.513916
5.000000	2125.000000	0.524730
195.000000	1945.000000	0.235602
185.000000	1955.000000	0.244593
175.000000	1965.000000	0.254657
165.000000	1975.000000	0.267220
155.000000	1985.000000	0.281309
145.000000	1995.000000	0.297396
135.000000	2005.000000	0.313025
125.000000	2015.000000	0.328779
115.000000	2025.000000	0.344429
105.000000	2035.000000	0.360691
95.000000	2045.000000	0.378140
85.000000	2055.000000	0.396878
75.000000	2065.000000	0.416585
65.000000	2075.000000	0.438930
55.000000	2085.000000	0.460592
45.000000	2095.000000	0.480120
35.000000	2105.000000	0.496718
25.000000	2115.000000	0.510900
15.000000	2125.000000	0.523405
5.000000	2135.000000	0.534582
195.000000	1955.000000	0.248603
185.000000	1965.000000	0.257182
175.000000	1975.000000	0.267167
165.000000	1985.000000	0.278963
155.000000	1995.000000	0.292889
145.000000	2005.000000	0.308766
135.000000	2015.000000	0.324330
125.000000	2025.000000	0.340184
115.000000	2035.000000	0.355665
105.000000	2045.000000	0.371759
95.000000	2055.000000	0.388828
85.000000	2065.000000	0.407378
75.000000	2075.000000	0.427031
65.000000	2085.000000	0.449057
55.000000	2095.000000	0.470713
45.000000	2105.000000	0.490161
35.000000	2115.000000	0.506900
25.000000	2125.000000	0.520227
15.000000	2135.000000	0.532555
5.000000	2145.000000	0.544606
195.000000	1965.000000	0.261793
185.000000	1975.000000	0.269647
175.000000	1985.000000	0.278962
165.000000	1995.000000	0.290629
155.000000	2005.000000	0.303901
145.000000	2015.000000	0.320228
135.000000	2025.000000	0.336053
125.000000	2035.000000	0.351729
115.000000	2045.000000	0.366972
105.000000	2055.000000	0.382649
95.000000	2065.000000	0.399284
85.000000	2075.000000	0.417101
75.000000	2085.000000	0.437073
65.000000	2095.000000	0.458584
55.000000	2105.000000	0.480663
45.000000	2115.000000	0.499932
35.000000	2125.000000	0.516393
25.000000	2135.000000	0.530087
15.000000	2145.000000	0.542260
5.000000	2155.000000	0.554007
195.000000	1975.000000	0.274337
185.000000	1985.000000	0.282199
175.000000	1995.000000	0.290917
165.000000	2005.000000	0.302243
155.000000	2015.000000	0.315491
145.000000	2025.000000	0.331385
135.000000	2035.000000	0.347082
125.000000	2045.000000	0.363001
115.000000	2055.000000	0.378071
105.000000	2065.000000	0.393493
95.000000	2075.000000	0.409867
85.000000	2085.000000	0.427690
75.000000	2095.000000	0.447683
65.000000	2105.000000	0.469182
55.000000	2115.000000	0.490350
45.000000	2125.000000	0.509376
35.000000	2135.000000	0.525720
25.000000	2145.000000	0.540226
15.000000	2155.000000	0.552619
5.000000	2165.000000	0.564286
195.000000	1985.000000	0.286859
185.000000	1995.000000	0.294261
175.000000	2005.000000	0.302806
165.000000	2015.000000	0.313248
155.000000	2025.000000	0.326424
145.000000	2035.000000	0.342279
135.000000	2045.000000	0.357878
125.000000	2055.000000	0.373729
115.000000	2065.000000	0.388909
105.000000	2075.000000	0.404309
95.000000	2085.000000	0.419813
85.000000	2095.000000	0.437698
75.000000	2105.000000	0.457845
65.000000	2115.000000	0.478977
55.000000	2125.000000	0.500064
45.000000	2135.000000	0.518710
35.000000	2145.000000	0.535895
25.000000	2155.000000	0.549829
15.000000	2165.000000	0.562245
5.000000	2175.000000	0.573453
195.000000	1995.000000	0.299380
185.000000	2005.000000	0.306354
175.000000	2015.000000	0.314403
165.000000	2025.000000	0.324445
155.000000	2035.000000	0.337395
145.000000	2045.000000	0.353049
135.000000	2055.000000	0.368850
125.000000	2065.000000	0.384785
115.000000	2075.000000	0.399510
105.000000	2085.000000	0.414489
95.000000	2095.000000	0.430152
85.000000	2105.000000	0.448476
75.000000	2115.000000	0.468119
65.000000	2125.000000	0.489356
55.000000	2135.000000	0.510037
45.000000	2145.000000	0.528460
35.000000	2155.000000	0.545692
25.000000	2165.000000	0.560070
15.000000	2175.000000	0.572300
5.000000	2185.000000	0.582924
195.000000	2005.000000	0.311177
185.000000	2015.000000	0.317779
175.000000	2025.000000	0.325513
165.000000	2035.000000	0.335225
155.000000	2045.000000	0.347739
145.000000	2055.000000	0.363628
135.000000	2065.000000	0.379333
125.000000	2075.000000	0.395220
115.000000	2085.000000	0.409986
105.000000	2095.000000	0.424730
95.000000	2105.000000	0.441149
85.000000	2115.000000	0.459107
75.000000	2125.000000	0.478646
65.000000	2135.000000	0.499208
55.000000	2145.000000	0.519583
45.000000	2155.000000	0.538701
35.000000	2165.000000	0.555534
25.000000	2175.000000	0.569742
15.000000	2185.000000	0.582174
5.000000	2195.000000	0.592921
195.000000	2015.000000	0.323438
185.000000	2025.000000	0.329627
175.000000	2035.000000	0.337161
165.000000	2045.000000	0.346144
155.000000	2055.000000	0.358487
145.000000	2065.000000	0.373473
135.000000	2075.000000	0.389228
125.000000	2085.000000	0.405096
115.000000	2095.000000	0.420053
105.000000	2105.000000	0.435241
95.000000	2115.000000	0.451654
85.000000	2125.000000	0.469366
75.000000	2135.000000	0.488542
65.000000	2145.000000	0.508747
55.000000	2155.000000	0.528994
45.000000	2165.000000	0.548747
35.000000	2175.000000	0.565606
25.000000	2185.000000	0.579387
15.000000	2195.000000	0.591530
5.000000	2205.000000	0.602347
195.000000	2025.000000	0.334963
185.000000	2035.000000	0.340766
175.000000	2045.000000	0.347510
165.000000	2055.000000	0.356724
155.000000	2065.000000	0.368828
145.000000	2075.000000	0.383802
135.000000	2085.000000	0.399207
125.000000	2095.000000	0.414977
115.000000	2105.000000	0.429768
105.000000	2115.000000	0.445569
95.000000	2125.000000	0.462059
85.000000	2135.000000	0.479683
75.000000	2145.000000	0.498755
65.000000	2155.000000	0.518615
55.000000	2165.000000	0.539714
45.000000	2175.000000	0.558433
35.000000	2185.000000	0.575500
25.000000	2195.000000	0.589089
15.000000	2205.000000	0.600621
5.000000	2215.000000	0.611558
195.000000	2035.000000	0.346560
185.000000	2045.000000	0.352327
175.000000	2055.000000	0.358703
165.000000	2065.000000	0.366985
155.000000	2075.000000	0.378818
145.000000	2085.000000	0.393291
135.000000	2095.000000	0.408688
125.000000	2105.000000	0.424291
115.000000	2115.000000	0.439979
105.000000	2125.000000	0.456240
95.000000	2135.000000	0.472824
85.000000	2145.000000	0.490131
75.000000	2155.000000	0.508688
65.000000	2165.000000	0.527975
55.000000	2175.000000	0.549360
45.000000	2185.000000	0.568636
35.000000	2195.000000	0.585195
25.000000	2205.000000	0.599324
15.000000	2215.000000	0.610681
5.000000	2225.000000	0.621708
195.000000	2045.000000	0.357915
185.000000	2055.000000	0.363294
175.000000	2065.000000	0.369621
165.000000	2075.000000	0.377288
155.000000	2085.000000	0.388348
145.000000	2095.000000	0.402559
135.000000	2105.000000	0.417884
125.000000	2115.000000	0.433586
115.000000	2125.000000	0.450019
105.000000	2135.000000	0.466218
95.000000	2145.000000	0.482744
85.000000	2155.000000	0.499989
75.000000	2165.000000	0.518578
65.000000	2175.000000	0.538254
55.000000	2185.000000	0.559041
45.000000	2195.000000	0.578387
35.000000	2205.000000	0.595024
25.000000	2215.000000	0.608093
15.000000	2225.000000	0.619573
5.000000	2235.000000	0.631203
195.000000	2055.000000	0.369062
185.000000	2065.000000	0.374082
175.000000	2075.000000	0.379995
165.000000	2085.000000	0.387505
155.000000	2095.000000	0.398183
145.000000	2105.000000	0.412125
135.000000	2115.000000	0.426517
125.000000	2125.000000	0.443304
115.000000	2135.000000	0.459647
105.000000	2145.000000	0.476170
95.000000	2155.000000	0.492940
85.000000	2165.000000	0.509915
75.000000	2175.000000	0.527701
65.000000	2185.000000	0.548569
55.000000	2195.000000	0.569453
45.000000	2205.000000	0.587993
35.000000	2215.000000	0.604531
25.000000	2225.000000	0.618136
15.000000	2235.000000	0.629664
5.000000	2245.000000	0.640584
195.000000	2065.000000	0.380049
185.000000	2075.000000	0.385024
175.000000	2085.000000	0.390065
165.000000	2095.000000	0.397091
155.000000	2105.000000	0.407468
145.000000	2115.000000	0.420614
135.000000	2125.000000	0.435504
125.000000	2135.000000	0.452542
115.000000	2145.000000	0.469514
105.000000	2155.000000	0.486045
95.000000	2165.000000	0.502596
85.000000	2175.000000	0.519637
75.000000	2185.000000	0.537607
65.000000	2195.000000	0.558328
55.000000	2205.000000	0.579158
45.000000	2215.000000	0.597867
35.000000	2225.000000	0.613695
25.000000	2235.000000	0.627561
15.000000	2245.000000	0.639234
5.000000	2255.000000	0.650111
195.000000	2075.000000	0.390778
185.000000	2085.000000	0.395433
175.000000	2095.000000	0.400524
165.000000	2105.000000	0.406906
155.000000	2115.000000	0.416572
145.000000	2125.000000	0.429008
135.000000	2135.000000	0.444564
125.000000	2145.000000	0.461957
115.000000	2155.000000	0.478789
105.000000	2165.000000	0.495454
95.000000	2175.000000	0.512015
85.000000	2185.000000	0.528923
75.000000	2195.000000	0.548057
65.000000	2205.000000	0.568492
55.000000	2215.000000	0.589121
45.000000	2225.000000	0.607177
35.000000	2235.000000	0.623716
25.000000	2245.000000	0.636977
15.000000	2255.000000	0.648580
5.000000	2265.000000	0.659312
195.000000	2085.000000	0.401027
185.000000	2095.000000	0.405869
175.000000	2105.000000	0.410127
165.000000	2115.000000	0.415807
155.000000	2125.000000	0.425400
145.000000	2135.000000	0.437545
135.000000	2145.000000	0.453313
125.000000	2155.000000	0.470990
115.000000	2165.000000	0.487858
105.000000	2175.000000	0.505135
95.000000	2185.000000	0.521269
85.000000	2195.000000	0.538356
75.000000	2205.000000	0.557680
65.000000	2215.000000	0.578332
55.000000	2225.000000	0.598537
45.000000	2235.000000	0.616703
35.000000	2245.000000	0.632863
25.000000	2255.000000	0.646935
15.000000	2265.000000	0.658025
5.000000	2275.000000	0.668731
195.000000	2095.000000	0.411330
185.000000	2105.000000	0.415415
175.000000	2115.000000	0.419781
165.000000	2125.000000	0.425192
155.000000	2135.000000	0.433795
145.000000	2145.000000	0.446344
135.000000	2155.000000	0.462185
125.000000	2165.000000	0.479491
115.000000	2175.000000	0.496677
105.000000	2185.000000	0.513900
95.000000	2195.000000	0.530096
85.000000	2205.000000	0.548240
75.000000	2215.000000	0.567698
65.000000	2225.000000	0.588347
55.000000	2235.000000	0.607914
45.000000	2245.000000	0.626293
35.000000	2255.000000	0.642804
25.000000	2265.000000	0.656049
15.000000	2275.000000	0.667403
5.000000	2285.000000	0.677927
195.000000	2105.000000	0.420991
185.000000	2115.000000	0.425041
175.000000	2125.000000	0.428669
165.000000	2135.000000	0.434069
155.000000	2145.000000	0.442452
145.000000	2155.000000	0.454865
135.000000	2165.000000	0.470987
125.000000	2175.000000	0.488353
115.000000	2185.000000	0.505447
105.000000	2195.000000	0.522490
95.000000	2205.000000	0.539190
85.000000	2215.000000	0.557971
75.000000	2225.000000	0.577498
65.000000	2235.000000	0.597587
55.000000	2245.000000	0.617527
45.000000	2255.000000	0.635640
35.000000	2265.000000	0.651809
25.000000	2275.000000	0.665204
15.000000	2285.000000	0.676341
5.000000	2295.000000	0.687273
195.000000	2115.000000	0.430454
185.000000	2125.000000	0.434284
175.000000	2135.000000	0.437894
165.000000	2145.000000	0.442929
155.000000	2155.000000	0.451813
145.000000	2165.000000	0.463898
135.000000	2175.000000	0.479284
125.000000	2185.000000	0.496820
115.000000	2195.000000	0.514168
105.000000	2205.000000	0.530990
95.000000	2215.000000	0.548781
85.000000	2225.000000	0.567520
75.000000	2235.000000	0.587296
65.000000	2245.000000	0.606857
55.000000	2255.000000	0.627120
45.000000	2265.000000	0.645294
35.000000	2275.000000	0.660792
25.000000	2285.000000	0.674061
15.000000	2295.000000	0.685424
5.000000	2305.000000	0.696151
195.000000	2125.000000	0.440449
185.000000	2135.000000	0.444325
175.000000	2145.000000	0.447698
165.000000	2155.000000	0.452830
155.000000	2165.000000	0.460910
145.000000	2175.000000	0.472814
135.000000	2185.000000	0.487683
125.000000	2195.000000	0.504876
115.000000	2205.000000	0.522150
105.000000	2215.000000	0.538906
95.000000	2225.000000	0.557794
85.000000	2235.000000	0.576936
75.000000	2245.000000	0.596214
65.000000	2255.000000	0.616410
55.000000	2265.000000	0.636256
45.000000	2275.000000	0.654808
35.000000	2285.000000	0.669697
25.000000	2295.000000	0.683022
15.000000	2305.000000	0.695073
5.000000	2315.000000	0.705113
195.000000	2135.000000	0.450379
185.000000	2145.000000	0.454233
175.000000	2155.000000	0.456962
165.000000	2165.000000	0.461731
155.000000	2175.000000	0.469743
145.000000	2185.000000	0.480957
135.000000	2195.000000	0.495840
125.000000	2205.000000	0.513100
115.000000	2215.000000	0.529987
105.000000	2225.000000	0.547996
95.000000	2235.000000	0.566880
85.000000	2245.000000	0.586400
75.000000	2255.000000	0.605568
65.000000	2265.000000	0.625844
55.000000	2275.000000	0.645942
45.000000	2285.000000	0.663674
35.000000	2295.000000	0.678720
25.000000	2305.000000	0.691946
15.000000	2315.000000	0.703862
5.000000	2325.000000	0.714036
195.000000	2145.000000	0.460253
185.000000	2155.000000	0.463734
175.000000	2165.000000	0.466781
165.000000	2175.000000	0.470847
155.000000	2185.000000	0.478752
145.000000	2195.000000	0.489584
135.000000	2205.000000	0.503881
125.000000	2215.000000	0.520834
115.000000	2225.000000	0.537552
105.000000	2235.000000	0.556595
95.000000	2245.000000	0.575749
85.000000	2255.000000	0.594865
75.000000	2265.000000	0.614436
65.000000	2275.000000	0.634894
55.000000	2285.000000	0.655213
45.000000	2295.000000	0.672664
35.000000	2305.000000	0.688157
25.000000	2315.000000	0.700703
15.000000	2325.000000	0.712549
5.000000	2335.000000	0.722916
195.000000	2155.000000	0.469988
185.000000	2165.000000	0.473549
175.000000	2175.000000	0.475984
165.000000	2185.000000	0.479757
155.000000	2195.000000	0.487158
145.000000	2205.000000	0.497818
135.000000	2215.000000	0.511996
125.000000	2225.000000	0.528517
115.000000	2235.000000	0.545478
105.000000	2245.000000	0.565349
95.000000	2255.000000	0.584755
85.000000	2265.000000	0.604028
75.000000	2275.000000	0.623651
65.000000	2285.000000	0.644299
55.000000	2295.000000	0.663678
45.000000	2305.000000	0.681773
35.000000	2315.000000	0.696691
25.000000	2325.000000	0.709339
15.000000	2335.000000	0.721792
5.000000	2345.000000	0.731428
195.000000	2165.000000	0.479488
185.000000	2175.000000	0.482643
175.000000	2185.000000	0.485178
165.000000	2195.000000	0.488870
155.000000	2205.000000	0.495870
145.000000	2215.000000	0.505995
135.000000	2225.000000	0.519854
125.000000	2235.000000	0.536115
115.000000	2245.000000	0.553870
105.000000	2255.000000	0.573741
95.000000	2265.000000	0.592937
85.000000	2275.000000	0.612405
75.000000	2285.000000	0.632577
65.000000	2295.000000	0.653433
55.000000	2305.000000	0.672549
45.000000	2315.000000	0.690537
35.000000	2325.000000	0.705465
25.000000	2335.000000	0.718073
15.000000	2345.000000	0.729711
5.000000	2355.000000	0.740542
195.000000	2175.000000	0.488659
185.000000	2185.000000	0.491840
175.000000	2195.000000	0.494276
165.000000	2205.000000	0.497880
155.000000	2215.000000	0.504028
145.000000	2225.000000	0.513751
135.000000	2235.000000	0.527327
125.000000	2245.000000	0.542997
115.000000	2255.000000	0.562170
105.000000	2265.000000	0.582369
95.000000	2275.000000	0.601625
85.000000	2285.000000	0.620887
75.000000	2295.000000	0.641604
65.000000	2305.000000	0.661901
55.000000	2315.000000	0.681369
45.000000	2325.000000	0.699050
35.000000	2335.000000	0.713367
25.000000	2345.000000	0.726816
15.000000	2355.000000	0.738125
5.000000	2365.000000	0.748678
195.000000	2185.000000	0.497578
185.000000	2195.000000	0.500828
175.000000	2205.000000	0.502937
165.000000	2215.000000	0.506235
155.000000	2225.000000	0.512783
145.000000	2235.000000	0.522360
135.000000	2245.000000	0.535195
125.000000	2255.000000	0.550750
115.000000	2265.000000	0.570409
105.000000	2275.000000	0.590175
95.000000	2285.000000	0.609693
85.000000	2295.000000	0.629635
75.000000	2305.000000	0.650652
65.000000	2315.000000	0.670894
55.000000	2325.000000	0.690544
45.000000	2335.000000	0.707079
35.000000	2345.000000	0.722392
25.000000	2355.000000	0.735513
15.000000	2365.000000	0.747294
5.000000	2375.000000	0.757156
195.000000	2195.000000	0.506438
185.000000	2205.000000	0.509270
175.000000	2215.000000	0.511609
165.000000	2225.000000	0.514930
155.000000	2235.000000	0.520696
145.000000	2245.000000	0.529971
135.000000	2255.000000	0.542645
125.000000	2265.000000	0.559086
115.000000	2275.000000	0.578519
105.000000	2285.000000	0.598222
95.000000	2295.000000	0.617339
85.000000	2305.000000	0.637865
75.000000	2315.000000	0.659084
65.000000	2325.000000	0.679538
55.000000	2335.000000	0.698636
45.000000	2345.000000	0.716020
35.000000	2355.000000	0.730507
25.000000	2365.000000	0.743708
15.000000	2375.000000	0.755029
5.000000	2385.000000	0.765495
195.000000	2205.000000	0.514811
185.000000	2215.000000	0.517917
175.000000	2225.000000	0.520031
165.000000	2235.000000	0.522908
155.000000	2245.000000	0.528756
145.000000	2255.000000	0.537831
135.000000	2265.000000	0.549230
125.000000	2275.000000	0.567046
115.000000	2285.000000	0.586389
105.000000	2295.000000	0.606063
95.000000	2305.000000	0.625419
85.000000	2315.000000	0.646319
75.000000	2325.000000	0.667246
65.000000	2335.000000	0.688376
55.000000	2345.000000	0.706495
45.000000	2355.000000	0.724242
35.000000	2365.000000	0.739019
25.000000	2375.000000	0.752098
15.000000	2385.000000	0.763329
5.000000	2395.000000	0.773820
195.000000	2215.000000	0.523287
185.000000	2225.000000	0.526120
175.000000	2235.000000	0.528565
165.000000	2245.000000	0.531492
155.000000	2255.000000	0.536641
145.000000	2265.000000	0.545228
135.000000	2275.000000	0.557607
125.000000	2285.000000	0.574964
115.000000	2295.000000	0.593902
105.000000	2305.000000	0.613668
95.000000	2315.000000	0.633613
85.000000	2325.000000	0.654810
75.000000	2335.000000	0.675803
65.000000	2345.000000	0.696368
55.000000	2355.000000	0.715025
45.000000	2365.000000	0.731956
35.000000	2375.000000	0.747417
25.000000	2385.000000	0.760148
15.000000	2395.000000	0.771444
5.000000	2405.000000	0.782224
195.000000	2225.000000	0.531125
185.000000	2235.000000	0.534370
175.000000	2245.000000	0.536270
165.000000	2255.000000	0.539458
155.000000	2265.000000	0.544526
145.000000	2275.000000	0.552242
135.000000	2285.000000	0.565511
125.000000	2295.000000	0.582670
115.000000	2305.000000	0.601634
105.000000	2315.000000	0.620775
95.000000	2325.000000	0.641663
85.000000	2335.000000	0.662567
75.000000	2345.000000	0.684228
65.000000	2355.000000	0.704053
55.000000	2365.000000	0.723294
45.000000	2375.000000	0.740208
35.000000	2385.000000	0.755221
25.000000	2395.000000	0.768409
15.000000	2405.000000	0.779426
5.000000	2415.000000	0.790156
195.000000	2235.000000	0.539149
185.000000	2245.000000	0.541864
175.000000	2255.000000	0.543860
165.000000	2265.000000	0.546897
155.000000	2275.000000	0.552035
145.000000	2285.000000	0.560512
135.000000	2295.000000	0.573758
125.000000	2305.000000	0.590702
115.000000	2315.000000	0.609363
105.000000	2325.000000	0.628540
95.000000	2335.000000	0.649826
85.000000	2345.000000	0.670775
75.000000	2355.000000	0.692485
65.000000	2365.000000	0.712213
55.000000	2375.000000	0.731153
45.000000	2385.000000	0.748491
35.000000	2395.000000	0.763196
25.000000	2405.000000	0.776409
15.000000	2415.000000	0.787624
5.000000	2425.000000	0.797753
195.000000	2245.000000	0.546719
185.000000	2255.000000	0.549518
175.000000	2265.000000	0.551149
165.000000	2275.000000	0.553801
155.000000	2285.000000	0.559926
145.000000	2295.000000	0.568499
135.000000	2305.000000	0.581256
125.000000	2315.000000	0.598353
115.000000	2325.000000	0.616891
105.000000	2335.000000	0.636297
95.000000	2345.000000	0.657336
85.000000	2355.000000	0.678710
75.000000	2365.000000	0.699727
65.000000	2375.000000	0.720341
55.000000	2385.000000	0.739212
45.000000	2395.000000	0.755607
35.000000	2405.000000	0.771027
25.000000	2415.000000	0.784315
15.000000	2425.000000	0.795120
5.000000	2435.000000	0.805501
195.000000	2255.000000	0.555055
185.000000	2265.000000	0.557883
175.000000	2275.000000	0.559734
165.000000	2285.000000	0.562441
155.000000	2295.000000	0.568477
145.000000	2305.000000	0.577082
135.000000	2315.000000	0.589506
125.000000	2325.000000	0.605868
115.000000	2335.000000	0.623598
105.000000	2345.000000	0.644298
95.000000	2355.000000	0.664921
85.000000	2365.000000	0.686954
75.000000	2375.000000	0.707094
65.000000	2385.000000	0.727908
55.000000	2395.000000	0.747122
45.000000	2405.000000	0.763575
35.000000	2415.000000	0.778977
25.000000	2425.000000	0.792397
15.000000	2435.000000	0.802998
5.000000	2445.000000	0.813274
195.000000	2265.000000	0.563211
185.000000	2275.000000	0.565916
175.000000	2285.000000	0.567564
165.000000	2295.000000	0.570466
155.000000	2305.000000	0.575940
145.000000	2315.000000	0.584851
135.000000	2325.000000	0.597508
125.000000	2335.000000	0.613298
115.000000	2345.000000	0.630979
105.000000	2355.000000	0.651973
95.000000	2365.000000	0.672587
85.000000	2375.000000	0.693999
75.000000	2385.000000	0.715393
65.000000	2395.000000	0.735801
55.000000	2405.000000	0.754238
45.000000	2415.000000	0.771199
35.000000	2425.000000	0.786311
25.000000	2435.000000	0.799518
15.000000	2445.000000	0.810418
5.000000	2455.000000	0.820454
195.000000	2275.000000	0.571117
185.000000	2285.000000	0.573879
175.000000	2295.000000	0.575541
165.000000	2305.000000	0.578669
155.000000	2315.000000	0.584553
145.000000	2325.000000	0.593035
135.000000	2335.000000	0.605332
125.000000	2345.000000	0.620743
115.000000	2355.000000	0.638165
105.000000	2365.000000	0.659088
95.000000	2375.000000	0.680438
85.000000	2385.000000	0.700926
75.000000	2395.000000	0.723065
65.000000	2405.000000	0.743299
55.000000	2415.000000	0.761957
45.000000	2425.000000	0.779391
35.000000	2435.000000	0.794127
25.000000	2445.000000	0.806816
15.000000	2455.000000	0.818161
5.000000	2465.000000	0.827372
195.000000	2285.000000	0.578938
185.000000	2295.000000	0.581504
175.000000	2305.000000	0.583273
165.000000	2315.000000	0.586755
155.000000	2325.000000	0.592218
145.000000	2335.000000	0.600951
135.000000	2345.000000	0.612959
125.000000	2355.000000	0.627995
115.000000	2365.000000	0.646335
105.000000	2375.000000	0.666468
95.000000	2385.000000	0.687942
85.000000	2395.000000	0.708732
75.000000	2405.000000	0.730103
65.000000	2415.000000	0.750976
55.000000	2425.000000	0.769528
45.000000	2435.000000	0.787039
35.000000	2445.000000	0.801357
25.000000	2455.000000	0.814270
15.000000	2465.000000	0.825601
5.000000	2475.000000	0.834185
195.000000	2295.000000	0.586606
185.000000	2305.000000	0.589036
175.000000	2315.000000	0.591035
165.000000	2325.000000	0.594653
155.000000	2335.000000	0.600437
145.000000	2345.000000	0.609037
135.000000	2355.000000	0.620426
125.000000	2365.000000	0.635303
115.000000	2375.000000	0.653745
105.000000	2385.000000	0.673865
95.000000	2395.000000	0.694685
85.000000	2405.000000	0.716592
75.000000	2415.000000	0.737808
65.000000	2425.000000	0.757624
55.000000	2435.000000	0.777219
45.000000	2445.000000	0.794672
35.000000	2455.000000	0.809138
25.000000	2465.000000	0.821910
15.000000	2475.000000	0.831872
5.000000	2485.000000	0.841041
195.000000	2305.000000	0.593933
185.000000	2315.000000	0.596477
175.000000	2325.000000	0.598501
165.000000	2335.000000	0.602382
155.000000	2345.000000	0.608020
145.000000	2355.000000	0.616609
135.000000	2365.000000	0.627984
125.000000	2375.000000	0.643032
115.000000	2385.000000	0.661176
105.000000	2395.000000	0.681391
95.000000	2405.000000	0.701353
85.000000	2415.000000	0.724035
75.000000	2425.000000	0.745474
65.000000	2435.000000	0.765434
55.000000	2445.000000	0.785044
45.000000	2455.000000	0.801420
35.000000	2465.000000	0.816331
25.000000	2475.000000	0.828724
15.000000	2485.000000	0.838602
5.000000	2495.000000	0.847520
195.000000	2315.000000	0.601025
185.000000	2325.000000	0.603508
175.000000	2335.000000	0.605771
165.000000	2345.000000	0.609873
155.000000	2355.000000	0.616143
145.000000	2365.000000	0.624442
135.000000	2375.000000	0.634953
125.000000	2385.000000	0.650484
115.000000	2395.000000	0.668230
105.000000	2405.000000	0.688349
95.000000	2415.000000	0.709225
85.000000	2425.000000	0.730874
75.000000	2435.000000	0.751960
65.000000	2445.000000	0.772826
55.000000	2455.000000	0.792380
45.000000	2465.000000	0.808794
35.000000	2475.000000	0.823717
25.000000	2485.000000	0.835288
15.000000	2495.000000	0.845096
5.000000	2505.000000	0.854562
195.000000	2325.000000	0.608068
185.000000	2335.000000	0.610831
175.000000	2345.000000	0.613344
165.000000	2355.000000	0.617518
155.000000	2365.000000	0.623727
145.000000	2375.000000	0.631987
135.000000	2385.000000	0.642508
125.000000	2395.000000	0.657968
115.000000	2405.000000	0.675282
105.000000	2415.000000	0.695005
95.000000	2425.000000	0.716850
85.000000	2435.000000	0.738348
75.000000	2445.000000	0.759233
65.000000	2455.000000	0.780417
55.000000	2465.000000	0.799228
45.000000	2475.000000	0.816127
35.000000	2485.000000	0.830276
25.000000	2495.000000	0.841454
15.000000	2505.000000	0.852079
5.000000	2515.000000	0.860827
195.000000	2335.000000	0.614875
185.000000	2345.000000	0.617862
175.000000	2355.000000	0.620355
165.000000	2365.000000	0.624756
155.000000	2375.000000	0.631431
145.000000	2385.000000	0.639146
135.000000	2395.000000	0.650467
125.000000	2405.000000	0.665287
115.000000	2415.000000	0.682684
105.000000	2425.000000	0.701845
95.000000	2435.000000	0.723723
85.000000	2445.000000	0.745682
75.000000	2455.000000	0.766502
65.000000	2465.000000	0.787579
55.000000	2475.000000	0.806222
45.000000	2485.000000	0.823093
35.000000	2495.000000	0.836116
25.000000	2505.000000	0.848143
15.000000	2515.000000	0.857865
5.000000	2525.000000	0.866979
195.000000	2345.000000	0.621589
185.000000	2355.000000	0.624672
175.000000	2365.000000	0.627963
165.000000	2375.000000	0.632332
155.000000	2385.000000	0.638414
145.000000	2395.000000	0.646466
135.000000	2405.000000	0.658096
125.000000	2415.000000	0.672604
115.000000	2425.000000	0.689379
105.000000	2435.000000	0.709528
95.000000	2445.000000	0.730870
85.000000	2455.000000	0.751601
75.000000	2465.000000	0.773921
65.000000	2475.000000	0.794663
55.000000	2485.000000	0.813463
45.000000	2495.000000	0.829595
35.000000	2505.000000	0.842808
25.000000	2515.000000	0.854702
15.000000	2525.000000	0.864586
5.000000	2535.000000	0.873350
195.000000	2355.000000	0.628602
185.000000	2365.000000	0.631463
175.000000	2375.000000	0.634728
165.000000	2385.000000	0.639296
155.000000	2395.000000	0.645705
145.000000	2405.000000	0.654183
135.000000	2415.000000	0.665358
125.000000	2425.000000	0.680000
115.000000	2435.000000	0.695941
105.000000	2445.000000	0.717063
95.000000	2455.000000	0.738312
85.000000	2465.000000	0.758882
75.000000	2475.000000	0.781041
65.000000	2485.000000	0.801220
55.000000	2495.000000	0.820898
45.000000	2505.000000	0.835052
35.000000	2515.000000	0.848949
25.000000	2525.000000	0.861049
15.000000	2535.000000	0.871598
5.000000	2545.000000	0.879522
195.000000	2365.000000	0.635179
185.000000	2375.000000	0.638121
175.000000	2385.000000	0.642068
165.000000	2395.000000	0.646454
155.000000	2405.000000	0.653092
145.000000	2415.000000	0.661723
135.000000	2425.000000	0.672955
125.000000	2435.000000	0.686389
115.000000	2445.000000	0.703506
105.000000	2455.000000	0.723455
95.000000	2465.000000	0.745097
85.000000	2475.000000	0.765989
75.000000	2485.000000	0.788255
65.000000	2495.000000	0.808508
55.000000	2505.000000	0.826767
45.000000	2515.000000	0.841455
35.000000	2525.000000	0.855105
25.000000	2535.000000	0.866808
15.000000	2545.000000	0.877216
5.000000	2555.000000	0.885395
195.000000	2375.000000	0.641938
185.000000	2385.000000	0.644931
175.000000	2395.000000	0.648900
165.000000	2405.000000	0.654018
155.000000	2415.000000	0.660525
145.000000	2425.000000	0.669026
135.000000	2435.000000	0.680029
125.000000	2445.000000	0.693199
115.000000	2455.000000	0.711355
105.000000	2465.000000	0.730928
95.000000	2475.000000	0.751164
85.000000	2485.000000	0.773213
75.000000	2495.000000	0.794753
65.000000	2505.000000	0.815468
55.000000	2515.000000	0.832107
45.000000	2525.000000	0.847771
35.000000	2535.000000	0.861274
25.000000	2545.000000	0.873816
15.000000	2555.000000	0.882443
5.000000	2565.000000	0.890533
195.000000	2385.000000	0.648558
185.000000	2395.000000	0.651849
175.000000	2405.000000	0.656105
165.000000	2415.000000	0.661470
155.000000	2425.000000	0.668073
145.000000	2435.000000	0.676581
135.000000	2445.000000	0.687531
125.000000	2455.000000	0.700466
115.000000	2465.000000	0.718402
105.000000	2475.000000	0.738754
95.000000	2485.000000	0.758173
85.000000	2495.000000	0.780764
75.000000	2505.000000	0.801307
65.000000	2515.000000	0.822295
55.000000	2525.000000	0.838190
45.000000	2535.000000	0.853520
35.000000	2545.000000	0.867240
25.000000	2555.000000	0.879447
15.000000	2565.000000	0.888855
5.000000	2575.000000	0.897163
195.000000	2395.000000	0.655737
185.000000	2405.000000	0.659101
175.000000	2415.000000	0.663007
165.000000	2425.000000	0.668769
155.000000	2435.000000	0.675317
145.000000	2445.000000	0.683714
135.000000	2455.000000	0.693679
125.000000	2465.000000	0.708245
115.000000	2475.000000	0.725304
105.000000	2485.000000	0.744990
95.000000	2495.000000	0.765355
85.000000	2505.000000	0.787557
75.000000	2515.000000	0.808342
65.000000	2525.000000	0.827270
55.000000	2535.000000	0.843860
45.000000	2545.000000	0.859483
35.000000	2555.000000	0.873472
25.000000	2565.000000	0.885470
15.000000	2575.000000	0.894679
5.000000	2585.000000	0.902520
195.000000	2405.000000	0.662175
185.000000	2415.000000	0.665854
175.000000	2425.000000	0.670399
165.000000	2435.000000	0.675699
155.000000	2445.000000	0.682499
145.000000	2455.000000	0.690096
135.000000	2465.000000	0.700901
125.000000	2475.000000	0.715656
115.000000	2485.000000	0.732724
105.000000	2495.000000	0.751479
95.000000	2505.000000	0.772497
85.000000	2515.000000	0.793575
75.000000	2525.000000	0.815137
65.000000	2535.000000	0.832689
55.000000	2545.000000	0.850217
45.000000	2555.000000	0.865855
35.000000	2565.000000	0.880100
25.000000	2575.000000	0.890339
15.000000	2585.000000	0.900451
5.000000	2595.000000	0.908156
195.000000	2415.000000	0.669171
185.000000	2425.000000	0.672725
175.000000	2435.000000	0.677294
165.000000	2445.000000	0.682835
155.000000	2455.000000	0.689677
145.000000	2465.000000	0.697472
135.000000	2475.000000	0.708883
125.000000	2485.000000	0.722553
115.000000	2495.000000	0.740335
105.000000	2505.000000	0.758379
95.000000	2515.000000	0.779667
85.000000	2525.000000	0.800057
75.000000	2535.000000	0.821604
65.000000	2545.000000	0.837836
55.000000	2555.000000	0.855338
45.000000	2565.000000	0.871736
35.000000	2575.000000	0.884340
25.000000	2585.000000	0.896222
15.000000	2595.000000	0.905850
5.000000	2605.000000	0.914384
195.000000	2425.000000	0.675891
185.000000	2435.000000	0.679860
175.000000	2445.000000	0.684341
165.000000	2455.000000	0.689892
155.000000	2465.000000	0.696449
145.000000	2475.000000	0.704639
135.000000	2485.000000	0.715909
125.000000	2495.000000	0.730332
115.000000	2505.000000	0.746201
105.000000	2515.000000	0.765446
95.000000	2525.000000	0.786433
85.000000	2535.000000	0.807006
75.000000	2545.000000	0.826202
65.000000	2555.000000	0.843797
55.000000	2565.000000	0.861318
45.000000	2575.000000	0.877681
35.000000	2585.000000	0.890707
25.000000	2595.000000	0.901950
15.000000	2605.000000	0.911374
5.000000	2615.000000	0.919610
195.000000	2435.000000	0.682426
185.000000	2445.000000	0.686657
175.000000	2455.000000	0.691018
165.000000	2465.000000	0.696989
155.000000	2475.000000	0.703511
145.000000	2485.000000	0.712472
135.000000	2495.000000	0.722854
125.000000	2505.000000	0.737811
115.000000	2515.000000	0.753711
105.000000	2525.000000	0.772718
95.000000	2535.000000	0.792445
85.000000	2545.000000	0.813740
75.000000	2555.000000	0.831101
65.000000	2565.000000	0.849647
55.000000	2575.000000	0.867719
45.000000	2585.000000	0.882672
35.000000	2595.000000	0.895731
25.000000	2605.000000	0.907020
15.000000	2615.000000	0.916679
5.000000	2625.000000	0.924338
195.000000	2445.000000	0.689626
185.000000	2455.000000	0.693609
175.000000	2465.000000	0.697885
165.000000	2475.000000	0.704197
155.000000	2485.000000	0.711440
145.000000	2495.000000	0.719650
135.000000	2505.000000	0.731011
125.000000	2515.000000	0.744214
115.000000	2525.000000	0.760699
105.000000	2535.000000	0.779657
95.000000	2545.000000	0.799092
85.000000	2555.000000	0.820186
75.000000	2565.000000	0.836159
65.000000	2575.000000	0.854565
55.000000	2585.000000	0.873273
45.000000	2595.000000	0.887975
35.000000	2605.000000	0.901711
25.000000	2615.000000	0.913238
15.000000	2625.000000	0.922544
5.000000	2635.000000	0.929413
195.000000	2455.000000	0.696352
185.000000	2465.000000	0.700475
175.000000	2475.000000	0.705176
165.000000	2485.000000	0.711820
155.000000	2495.000000	0.718508
145.000000	2505.000000	0.727179
135.000000	2515.000000	0.738496
125.000000	2525.000000	0.751314
115.000000	2535.000000	0.768101
105.000000	2545.000000	0.786915
95.000000	2555.000000	0.805979
85.000000	2565.000000	0.824572
75.000000	2575.000000	0.842009
65.000000	2585.000000	0.860731
55.000000	2595.000000	0.878922
45.000000	2605.000000	0.893164
35.000000	2615.000000	0.907498
25.000000	2625.000000	0.918296
15.000000	2635.000000	0.927318
5.000000	2645.000000	0.934634
195.000000	2465.000000	0.703395
185.000000	2475.000000	0.708140
175.000000	2485.000000	0.712521
165.000000	2495.000000	0.718703
155.000000	2505.000000	0.725806
145.000000	2515.000000	0.735037
135.000000	2525.000000	0.745066
125.000000	2535.000000	0.758860
115.000000	2545.000000	0.775074
105.000000	2555.000000	0.792649
95.000000	2565.000000	0.812446
85.000000	2575.000000	0.829463
75.000000	2585.000000	0.847855
65.000000	2595.000000	0.866844
55.000000	2605.000000	0.883132
45.000000	2615.000000	0.899156
35.000000	2625.000000	0.912873
25.000000	2635.000000	0.923340
15.000000	2645.000000	0.931964
5.000000	2655.000000	0.939785
195.000000	2475.000000	0.710800
185.000000	2485.000000	0.714430
175.000000	2495.000000	0.720041
165.000000	2505.000000	0.725926
155.000000	2515.000000	0.733836
145.000000	2525.000000	0.741834
135.000000	2535.000000	0.753034
125.000000	2545.000000	0.765798
115.000000	2555.000000	0.782657
105.000000	2565.000000	0.799766
95.000000	2575.000000	0.818743
85.000000	2585.000000	0.834057
75.000000	2595.000000	0.852600
65.000000	2605.000000	0.872272
55.000000	2615.000000	0.888414
45.000000	2625.000000	0.904406
35.000000	2635.000000	0.918191
25.000000	2645.000000	0.928360
15.000000	2655.000000	0.937573
5.000000	2665.000000	0.944529
195.000000	2485.000000	0.717587
185.000000	2495.000000	0.721823
175.000000	2505.000000	0.726976
165.000000	2515.000000	0.734160
155.000000	2525.000000	0.740466
145.000000	2535.000000	0.749605
135.000000	2545.000000	0.760247
125.000000	2555.000000	0.773270
115.000000	2565.000000	0.788555
105.000000	2575.000000	0.806243
95.000000	2585.000000	0.823628
85.000000	2595.000000	0.839751
75.000000	2605.000000	0.858300
65.000000	2615.000000	0.877814
55.000000	2625.000000	0.893689
45.000000	2635.000000	0.910090
35.000000	2645.000000	0.922463
25.000000	2655.000000	0.933095
15.000000	2665.000000	0.942223
5.000000	2675.000000	0.949633
195.000000	2495.000000	0.724695
185.000000	2505.000000	0.729400
175.000000	2515.000000	0.734727
165.000000	2525.000000	0.740584
155.000000	2535.000000	0.748033
145.000000	2545.000000	0.756615
135.000000	2555.000000	0.767586
125.000000	2565.000000	0.781204
115.000000	2575.000000	0.795761
105.000000	2585.000000	0.813355
95.000000	2595.000000	0.828459
85.000000	2605.000000	0.845543
75.000000	2615.000000	0.864663
65.000000	2625.000000	0.881687
55.000000	2635.000000	0.899254
45.000000	2645.000000	0.915505
35.000000	2655.000000	0.927347
25.000000	2665.000000	0.938588
15.000000	2675.000000	0.947315
5.000000	2685.000000	0.954040
195.000000	2505.000000	0.731800
185.000000	2515.000000	0.736653
175.000000	2525.000000	0.741691
165.000000	2535.000000	0.748447
155.000000	2545.000000	0.755957
145.000000	2555.000000	0.764443
135.000000	2565.000000	0.774999
125.000000	2575.000000	0.787580
115.000000	2585.000000	0.802736
105.000000	2595.000000	0.819073
95.000000	2605.000000	0.833381
85.000000	2615.000000	0.850953
75.000000	2625.000000	0.870116
65.000000	2635.000000	0.886625
55.000000	2645.000000	0.904602
45.000000	2655.000000	0.919674
35.000000	2665.000000	0.932835
25.000000	2675.000000	0.943303
15.000000	2685.000000	0.952181
5.000000	2695.000000	0.959957
195.000000	2515.000000	0.739104
185.000000	2525.000000	0.743423
175.000000	2535.000000	0.748848
165.000000	2545.000000	0.755388
155.000000	2555.000000	0.762864
145.000000	2565.000000	0.771805
135.000000	2575.000000	0.782430
125.000000	2585.000000	0.794779
115.000000	2595.000000	0.809798
105.000000	2605.000000	0.823913
95.000000	2615.000000	0.839231
85.000000	2625.000000	0.856557
75.000000	2635.000000	0.875613
65.000000	2645.000000	0.891829
55.000000	2655.000000	0.910142
45.000000	2665.000000	0.924075
35.000000	2675.000000	0.937332
25.000000	2685.000000	0.948138
15.000000	2695.000000	0.956717
5.000000	2705.000000	0.963527
195.000000	2525.000000	0.746168
185.000000	2535.000000	0.751233
175.000000	2545.000000	0.756624
165.000000	2555.000000	0.763077
155.000000	2565.000000	0.770599
145.000000	2575.000000	0.779155
135.000000	2585.000000	0.789310
125.000000	2595.000000	0.801661
115.000000	2605.000000	0.816264
105.000000	2615.000000	0.829504
95.000000	2625.000000	0.845598
85.000000	2635.000000	0.862612
75.000000	2645.000000	0.879832
65.000000	2655.000000	0.897138
55.000000	2665.000000	0.915255
45.000000	2675.000000	0.929254
35.000000	2685.000000	0.942100
25.000000	2695.000000	0.952734
15.000000	2705.000000	0.961783
5.000000	2715.000000	0.968483
195.000000	2535.000000	0.753460
185.000000	2545.000000	0.758169
175.000000	2555.000000	0.763897
165.000000	2565.000000	0.770215
155.000000	2575.000000	0.778044
145.000000	2585.000000	0.786151
135.000000	2595.000000	0.796408
125.000000	2605.000000	0.809096
115.000000	2615.000000	0.821476
105.000000	2625.000000	0.835094
95.000000	2635.000000	0.850662
85.000000	2645.000000	0.868400
75.000000	2655.000000	0.883957
65.000000	2665.000000	0.902524
55.000000	2675.000000	0.919027
45.000000	2685.000000	0.933859
35.000000	2695.000000	0.947120
25.000000	2705.000000	0.957945
15.000000	2715.000000	0.965608
5.000000	2725.000000	0.972382
195.000000	2545.000000	0.760638
185.000000	2555.000000	0.765703
175.000000	2565.000000	0.771514
165.000000	2575.000000	0.778155
155.000000	2585.000000	0.785332
145.000000	2595.000000	0.793888
135.000000	2605.000000	0.803598
125.000000	2615.000000	0.815737
115.000000	2625.000000	0.827210
105.000000	2635.000000	0.841347
95.000000	2645.000000	0.856654
85.000000	2655.000000	0.873955
75.000000	2665.000000	0.889410
65.000000	2675.000000	0.907986
55.000000	2685.000000	0.923285
45.000000	2695.000000	0.938770
35.000000	2705.000000	0.951633
25.000000	2715.000000	0.962100
15.000000	2725.000000	0.970348
5.000000	2735.000000	0.976494
195.000000	2555.000000	0.767839
185.000000	2565.000000	0.773083
175.000000	2575.000000	0.778930
165.000000	2585.000000	0.785428
155.000000	2595.000000	0.792548
145.000000	2605.000000	0.800936
135.000000	2615.000000	0.811098
125.000000	2625.000000	0.821160
115.000000	2635.000000	0.833113
105.000000	2645.000000	0.847255
95.000000	2655.000000	0.862672
85.000000	2665.000000	0.878486
75.000000	2675.000000	0.894386
65.000000	2685.000000	0.913390
55.000000	2695.000000	0.928007
45.000000	2705.000000	0.943728
35.000000	2715.000000	0.957053
25.000000	2725.000000	0.967082
15.000000	2735.000000	0.974732
5.000000	2745.000000	0.980960
195.000000	2565.000000	0.775320
185.000000	2575.000000	0.780399
175.000000	2585.000000	0.785965
165.000000	2595.000000	0.792478
155.000000	2605.000000	0.799606
145.000000	2615.000000	0.808362
135.000000	2625.000000	0.817952
125.000000	2635.000000	0.827506
115.000000	2645.000000	0.839441
105.000000	2655.000000	0.852461
95.000000	2665.000000	0.868526
85.000000	2675.000000	0.882865
75.000000	2685.000000	0.899941
65.000000	2695.000000	0.917078
55.000000	2705.000000	0.932611
45.000000	2715.000000	0.948428
35.000000	2725.000000	0.961119
25.000000	2735.000000	0.970944
15.000000	2745.000000	0.979039
5.000000	2755.000000	0.985153
195.000000	2575.000000	0.782110
185.000000	2585.000000	0.787414
175.000000	2595.000000	0.793511
165.000000	2605.000000	0.799853
155.000000	2615.000000	0.807505
145.000000	2625.000000	0.814978
135.000000	2635.000000	0.823711
125.000000	2645.000000	0.833731
115.000000	2655.000000	0.845794
105.000000	2665.000000	0.858836
95.000000	2675.000000	0.874166
85.000000	2685.000000	0.888055
75.000000	2695.000000	0.905377
65.000000	2705.000000	0.920344
55.000000	2715.000000	0.937396
45.000000	2725.000000	0.953040
35.000000	2735.000000	0.965515
25.000000	2745.000000	0.975152
15.000000	2755.000000	0.982843
5.000000	2765.000000	0.988674
195.000000	2585.000000	0.789741
185.000000	2595.000000	0.795049
175.000000	2605.000000	0.800382
165.000000	2615.000000	0.807466
155.000000	2625.000000	0.814518
145.000000	2635.000000	0.821698
135.000000	2645.000000	0.830111
125.000000	2655.000000	0.840376
115.000000	2665.000000	0.851559
105.000000	2675.000000	0.864983
95.000000	2685.000000	0.878641
85.000000	2695.000000	0.893126
75.000000	2705.000000	0.910787
65.000000	2715.000000	0.925455
55.000000	2725.000000	0.941960
45.000000	2735.000000	0.957862
35.000000	2745.000000	0.969423
25.000000	2755.000000	0.979026
15.000000	2765.000000	0.987135
5.000000	2775.000000	0.993224
195.000000	2595.000000	0.796951
185.000000	2605.000000	0.802357
175.000000	2615.000000	0.808432
165.000000	2625.000000	0.814478
155.000000	2635.000000	0.821361
145.000000	2645.000000	0.828132
135.000000	2655.000000	0.836466
125.000000	2665.000000	0.846593
115.000000	2675.000000	0.857854
105.000000	2685.000000	0.871062
95.000000	2695.000000	0.883256
85.000000	2705.000000	0.898651
75.000000	2715.000000	0.915374
65.000000	2725.000000	0.929485
55.000000	2735.000000	0.946629
45.000000	2745.000000	0.961462
35.000000	2755.000000	0.973524
25.000000	2765.000000	0.983234
15.000000	2775.000000	0.990659
5.000000	2785.000000	0.997332
195.000000	2605.000000	0.804260
185.000000	2615.000000	0.809693
175.000000	2625.000000	0.815593
165.000000	2635.000000	0.821656
155.000000	2645.000000	0.827709
145.000000	2655.000000	0.834777
135.000000	2665.000000	0.843536
125.000000	2675.000000	0.852604
115.000000	2685.000000	0.863857
105.000000	2695.000000	0.876168
95.000000	2705.000000	0.888496
85.000000	2715.000000	0.904473
75.000000	2725.000000	0.918291
65.000000	2735.000000	0.934406
55.000000	2745.000000	0.951875
45.000000	2755.000000	0.966210
35.000000	2765.000000	0.977507
25.000000	2775.000000	0.987002
15.000000	2785.000000	0.995411
5.000000	2795.000000	1.001104
195.000000	2615.000000	0.811562
185.000000	2625.000000	0.817110
175.000000	2635.000000	0.822458
165.000000	2645.000000	0.828128
155.000000	2655.000000	0.834444
145.000000	2665.000000	0.842216
135.000000	2675.000000	0.849402
125.000000	2685.000000	0.858931
115.000000	2695.000000	0.870089
105.000000	2705.000000	0.880834
95.000000	2715.000000	0.894224
85.000000	2725.000000	0.910011
75.000000	2735.000000	0.922743
65.000000	2745.000000	0.939133
